ply
format ascii 1.0
comment VCGLIB generated
element vertex 1123
property float x
property float y
property float z
property float nx
property float ny
property float nz
element face 0
property list uchar int vertex_indices
end_header
-0.01746742 -0.01121863 0.02217665 0 0 0 
-0.01910091 -0.01089759 0.02600948 0 0 0 
-0.0193402 -0.009227681 0.0269969 0 0 0 
-0.01672617 -0.01110923 0.01899432 0 0 0 
-0.01773825 -0.01238109 0.01841033 0 0 0 
-0.0181111 -0.012276 0.02053167 0 0 0 
-0.01707016 -0.01145519 0.01886321 0 0 0 
-0.01749225 -0.01105887 0.02057356 0 0 0 
-0.01597634 -0.01136813 0.01792445 0 0 0 
-0.01623949 -0.01076317 0.01914571 0 0 0 
-0.01550111 -0.01083351 0.01846294 0 0 0 
-0.01585125 -0.01011106 0.01973751 0 0 0 
-0.01686107 -0.01091924 0.02352392 0 0 0 
-0.01812579 -0.01211707 0.02239221 0 0 0 
-0.01811025 -0.01162749 0.02418744 0 0 0 
-0.01731482 -0.01114288 0.02250686 0 0 0 
-0.01733494 -0.01109584 0.02443432 0 0 0 
-0.01664707 -0.01070717 0.02297701 0 0 0 
-0.01638791 -0.01065807 0.02432279 0 0 0 
-0.0162382 -0.01033122 0.0227627 0 0 0 
-0.01603081 -0.01039559 0.02443006 0 0 0 
-0.01584677 -0.009720316 0.02023787 0 0 0 
-0.01672076 -0.01073258 0.01949061 0 0 0 
-0.01687824 -0.01013354 0.02074166 0 0 0 
-0.01626006 -0.01006248 0.0200609 0 0 0 
-0.01625345 -0.009629758 0.02085762 0 0 0 
-0.01495168 -0.01013092 0.019008 0 0 0 
-0.01547002 -0.009356426 0.02044646 0 0 0 
-0.01428116 -0.009209163 0.01948499 0 0 0 
-0.01478903 -0.008709586 0.02082139 0 0 0 
-0.01555988 -0.009281835 0.02337464 0 0 0 
-0.01661518 -0.0104347 0.02217607 0 0 0 
-0.01680045 -0.01080515 0.0247228 0 0 0 
-0.01574377 -0.00928457 0.02223462 0 0 0 
-0.01540766 -0.009223815 0.0242671 0 0 0 
-0.01571915 -0.009337367 0.02258904 0 0 0 
-0.01551318 -0.009512115 0.02447307 0 0 0 
-0.01488966 -0.008510073 0.02240106 0 0 0 
-0.0148281 -0.008518942 0.024492 0 0 0 
-0.025576 -0.011854 0.023682 0 0 0 
-0.02324105 -0.01375368 0.02334031 0 0 0 
-0.02327369 -0.01253595 0.02446737 0 0 0 
-0.02410185 -0.01235766 0.02426391 0 0 0 
-0.02287123 -0.01263408 0.02451731 0 0 0 
-0.02620456 -0.009885914 0.02478246 0 0 0 
-0.02568555 -0.01102761 0.02428184 0 0 0 
-0.02608937 -0.009929922 0.02483769 0 0 0 
-0.02678213 -0.007843263 0.02559227 0 0 0 
-0.02716606 -0.008412475 0.02484031 0 0 0 
-0.02764296 -0.007142445 0.02513097 0 0 0 
-0.02642804 -0.008925283 0.0252569 0 0 0 
-0.0259116 -0.008395623 0.02591223 0 0 0 
-0.02674158 -0.007691189 0.02571154 0 0 0 
-0.02619089 -0.007245932 0.02629128 0 0 0 
-0.025886 -0.00700237 0.02654277 0 0 0 
-0.02361692 -0.01079221 0.02562687 0 0 0 
-0.02439757 -0.01150907 0.0247952 0 0 0 
-0.02476228 -0.01046788 0.0253244 0 0 0 
-0.02429822 -0.009807614 0.02594509 0 0 0 
-0.02302101 -0.01178777 0.02513674 0 0 0 
-0.02276595 -0.01103319 0.02569549 0 0 0 
-0.02316534 -0.01077014 0.02577535 0 0 0 
-0.02285716 -0.009957923 0.0263414 0 0 0 
-0.02304185 -0.009512767 0.02654584 0 0 0 
-0.02408032 -0.008545391 0.02668158 0 0 0 
-0.02503033 -0.00930421 0.02588559 0 0 0 
-0.024471 -0.008695 0.02647 0 0 0 
-0.02530316 -0.008056884 0.0263928 0 0 0 
-0.0247378 -0.007571931 0.02683525 0 0 0 
-0.02331161 -0.009618377 0.02641788 0 0 0 
-0.0230131 -0.008942681 0.02682239 0 0 0 
-0.02347305 -0.008268466 0.02697692 0 0 0 
-0.02305783 -0.007731501 0.02726097 0 0 0 
-0.02335459 -0.007540227 0.02724698 0 0 0 
-0.02269655 -0.007230474 0.02748952 0 0 0 
-0.02119367 -0.01364782 0.0235623 0 0 0 
-0.02066097 -0.01240449 0.02482993 0 0 0 
-0.02131054 -0.01266919 0.02464269 0 0 0 
-0.01992134 -0.01230929 0.02475571 0 0 0 
-0.01818814 -0.01121841 0.02525881 0 0 0 
-0.02028143 -0.01098246 0.02600227 0 0 0 
-0.02124204 -0.01188197 0.02531144 0 0 0 
-0.02107974 -0.01109615 0.02587615 0 0 0 
-0.02126616 -0.01089745 0.02598681 0 0 0 
-0.02113888 -0.01008614 0.0264964 0 0 0 
-0.01952146 -0.01165366 0.02537829 0 0 0 
-0.01947515 -0.01088051 0.02605727 0 0 0 
-0.01933631 -0.01087608 0.02604985 0 0 0 
-0.01926506 -0.0101578 0.02652614 0 0 0 
-0.02027387 -0.009686318 0.02677847 0 0 0 
-0.02030371 -0.008762347 0.0271986 0 0 0 
-0.02132639 -0.009747539 0.02666625 0 0 0 
-0.02120472 -0.009010847 0.02703772 0 0 0 
-0.02141754 -0.008375968 0.02728282 0 0 0 
-0.02120721 -0.007777101 0.02751769 0 0 0 
-0.01931617 -0.009775096 0.02673081 0 0 0 
-0.01929556 -0.009030689 0.02708823 0 0 0 
-0.01924831 -0.008427908 0.0273278 0 0 0 
-0.01936934 -0.007783113 0.02758068 0 0 0 
-0.02005318 -0.007711816 0.02759748 0 0 0 
-0.02112085 -0.007338864 0.02765518 0 0 0 
-0.01945272 -0.008426173 0.02734181 0 0 0 
-0.01935194 -0.007274127 0.02775041 0 0 0 
-0.01693023 -0.0102021 0.02606135 0 0 0 
-0.01810919 -0.01106571 0.02546304 0 0 0 
-0.0179918 -0.01047716 0.02615634 0 0 0 
-0.01753487 -0.01052837 0.02591575 0 0 0 
-0.01758973 -0.009836849 0.02662931 0 0 0 
-0.01644004 -0.01045111 0.02532894 0 0 0 
-0.01609769 -0.01004634 0.02577456 0 0 0 
-0.016283 -0.009536 0.026501 0 0 0 
-0.017064 -0.009244 0.026918 0 0 0 
-0.0163886 -0.008699216 0.02704036 0 0 0 
-0.01726699 -0.009762197 0.02662219 0 0 0 
-0.01742958 -0.008974744 0.02708871 0 0 0 
-0.01719107 -0.008345217 0.02729947 0 0 0 
-0.01742074 -0.007823161 0.02749039 0 0 0 
-0.0155533 -0.009330069 0.02619 0 0 0 
-0.01578754 -0.00879252 0.02683883 0 0 0 
-0.01502981 -0.008279596 0.02670261 0 0 0 
-0.01562264 -0.007716719 0.0272441 0 0 0 
-0.0168476 -0.007708562 0.02744821 0 0 0 
-0.01744767 -0.008454386 0.02729165 0 0 0 
-0.01760617 -0.00739135 0.02762681 0 0 0 
-0.01587811 -0.00735291 0.02739906 0 0 0 
-0.02863274 -0.005881266 0.01145524 0 0 0 
-0.02860317 -0.006232241 0.01156136 0 0 0 
-0.02930398 -0.006509937 0.01281624 0 0 0 
-0.02887207 -0.004808743 0.01126893 0 0 0 
-0.02975064 -0.005051071 0.01264218 0 0 0 
-0.02745443 -0.006541258 0.01067798 0 0 0 
-0.02857368 -0.006834898 0.01175163 0 0 0 
-0.02761887 -0.00512096 0.0104325 0 0 0 
-0.0286002 -0.005531244 0.01129602 0 0 0 
-0.02982721 -0.006108222 0.01600802 0 0 0 
-0.02972019 -0.006653712 0.0147483 0 0 0 
-0.02954761 -0.006571081 0.01676076 0 0 0 
-0.03015615 -0.005149489 0.01478893 0 0 0 
-0.02983619 -0.005047737 0.01687215 0 0 0 
-0.0295787 -0.007120059 0.01466123 0 0 0 
-0.02924392 -0.006947192 0.017421 0 0 0 
-0.03003065 -0.005661362 0.01490621 0 0 0 
-0.02953464 -0.005316949 0.01759298 0 0 0 
-0.02937624 -0.002689566 0.01124021 0 0 0 
-0.0291438 -0.003376187 0.01102051 0 0 0 
-0.02993202 -0.003427496 0.01261833 0 0 0 
-0.02919417 -0.001867968 0.01095628 0 0 0 
-0.02986056 -0.00177533 0.01266951 0 0 0 
-0.02785878 -0.00365969 0.01009618 0 0 0 
-0.02918935 -0.004061856 0.01133911 0 0 0 
-0.02805104 -0.001896824 0.009897081 0 0 0 
-0.02966976 -0.001484044 0.01214627 0 0 0 
-0.02998533 -0.002383663 0.01597743 0 0 0 
-0.03027157 -0.003359695 0.0147612 0 0 0 
-0.02992244 -0.003369118 0.01684454 0 0 0 
-0.03001308 -0.001735362 0.01482097 0 0 0 
-0.02973606 -0.001806549 0.01680674 0 0 0 
-0.03022087 -0.003025728 0.0150446 0 0 0 
-0.02974533 -0.003222639 0.01743701 0 0 0 
-0.02993465 -0.001390105 0.01500185 0 0 0 
-0.02961083 -0.001665592 0.01720408 0 0 0 
-0.02635423 -0.006375074 0.00971403 0 0 0 
-0.02607482 -0.006931034 0.009682765 0 0 0 
-0.02710721 -0.006900053 0.01047229 0 0 0 
-0.02661427 -0.005432681 0.009664501 0 0 0 
-0.02517597 -0.00747192 0.00919451 0 0 0 
-0.0292132 -0.0068974 0.01753661 0 0 0 
-0.02711769 -0.003695274 0.009523461 0 0 0 
-0.02697417 -0.004031057 0.009501852 0 0 0 
-0.02727043 -0.001992623 0.009245652 0 0 0 
-0.02958034 -0.001916834 0.01740417 0 0 0 
-0.02834577 -0.005742646 0.01962757 0 0 0 
-0.02893184 -0.006435229 0.01843585 0 0 0 
-0.02812952 -0.006480885 0.02106404 0 0 0 
-0.02912088 -0.00493418 0.01852638 0 0 0 
-0.02849099 -0.00470285 0.0206142 0 0 0 
-0.02836565 -0.006685746 0.01931927 0 0 0 
-0.02797211 -0.006546441 0.02057158 0 0 0 
-0.02856955 -0.005158695 0.01938831 0 0 0 
-0.02828122 -0.005300689 0.02052063 0 0 0 
-0.02889391 -0.005850479 0.02345893 0 0 0 
-0.02874817 -0.006436833 0.02262865 0 0 0 
-0.02862804 -0.006222874 0.02425204 0 0 0 
-0.02880132 -0.004840806 0.02265866 0 0 0 
-0.02897638 -0.00491674 0.02440392 0 0 0 
-0.02853067 -0.006831286 0.02210989 0 0 0 
-0.02796659 -0.006864325 0.02489251 0 0 0 
-0.02856546 -0.005122896 0.02208098 0 0 0 
-0.02836801 -0.005453332 0.02533292 0 0 0 
-0.02872865 -0.002616856 0.01967665 0 0 0 
-0.0292137 -0.003414117 0.01858745 0 0 0 
-0.02872725 -0.003392762 0.02060125 0 0 0 
-0.02916636 -0.001870314 0.01857699 0 0 0 
-0.02857198 -0.002065132 0.02057499 0 0 0 
-0.02882814 -0.003547992 0.01929758 0 0 0 
-0.02870334 -0.003585048 0.02049341 0 0 0 
-0.02872739 -0.001660226 0.01937046 0 0 0 
-0.02844961 -0.001598479 0.02062232 0 0 0 
-0.02894916 -0.002486308 0.02358758 0 0 0 
-0.02909201 -0.00339576 0.02251977 0 0 0 
-0.029042 -0.003413592 0.02443369 0 0 0 
-0.02894216 -0.002026651 0.02249182 0 0 0 
-0.02885927 -0.001957746 0.02449236 0 0 0 
-0.02902502 -0.003665876 0.02224723 0 0 0 
-0.02903214 -0.003419279 0.02460047 0 0 0 
-0.02823515 -0.001089291 0.02237317 0 0 0 
-0.02869055 -0.001483449 0.02418553 0 0 0 
-0.02803055 -0.006296119 0.02018612 0 0 0 
-0.02810984 -0.00674302 0.0197605 0 0 0 
-0.02796586 -0.00664885 0.02052749 0 0 0 
-0.028084 -0.005868 0.020639 0 0 0 
-0.02576131 -0.00684285 0.02665822 0 0 0 
-0.02821144 -0.006725319 0.02127891 0 0 0 
-0.0263635 -0.007258677 0.02618429 0 0 0 
-0.02627284 -0.005534608 0.02681824 0 0 0 
-0.02410957 -0.007353151 0.02711078 0 0 0 
-0.02850504 -0.001699621 0.02014772 0 0 0 
-0.0281486 -0.0007808753 0.0208282 0 0 0 
-0.02570578 -0.002578578 0.02737143 0 0 0 
-0.02638246 -0.003715263 0.02711064 0 0 0 
-0.02785661 -0.000498555 0.02244122 0 0 0 
-0.02631332 -0.001730444 0.02712498 0 0 0 
-0.02898736 0.0007341452 0.01157461 0 0 0 
-0.02902631 -0.0003769497 0.01105372 0 0 0 
-0.02958937 -0.0002556143 0.01277172 0 0 0 
-0.02871219 0.0009921389 0.01124011 0 0 0 
-0.02913347 0.001155211 0.01282544 0 0 0 
-0.02802394 -0.0002144272 0.0100374 0 0 0 
-0.02940721 0.0003149402 0.01249333 0 0 0 
-0.02775259 0.001495152 0.01041892 0 0 0 
-0.02872477 0.001977848 0.01277388 0 0 0 
-0.02924556 0.0008681203 0.0158765 0 0 0 
-0.0297118 -0.0002116676 0.0147928 0 0 0 
-0.02949411 -0.0002645677 0.01672925 0 0 0 
-0.02922561 0.001192822 0.01475718 0 0 0 
-0.02902257 0.00111908 0.01666378 0 0 0 
-0.02956226 0.0003021212 0.01495821 0 0 0 
-0.02927192 0.0003307327 0.01700985 0 0 0 
-0.02860221 0.002108373 0.01466048 0 0 0 
-0.02854139 0.00201004 0.0168881 0 0 0 
-0.02782538 0.00313525 0.0121299 0 0 0 
-0.02825532 0.00208292 0.0113682 0 0 0 
-0.02852004 0.002388253 0.01285934 0 0 0 
-0.02778443 0.0029648 0.01180603 0 0 0 
-0.02794342 0.003484032 0.01307158 0 0 0 
-0.02728921 0.002770529 0.01088951 0 0 0 
-0.02792006 0.003274675 0.01253115 0 0 0 
-0.02669889 0.00382487 0.01129347 0 0 0 
-0.02726513 0.004298297 0.01284032 0 0 0 
-0.02789676 0.00337575 0.01568688 0 0 0 
-0.0285162 0.002254128 0.01481889 0 0 0 
-0.02846497 0.002209312 0.01655345 0 0 0 
-0.02780368 0.003769003 0.01465496 0 0 0 
-0.02769304 0.003695985 0.01643432 0 0 0 
-0.02805095 0.003096782 0.01482414 0 0 0 
-0.02790678 0.003043966 0.01678907 0 0 0 
-0.02752457 0.004459876 0.01476439 0 0 0 
-0.02733415 0.004342465 0.01670895 0 0 0 
-0.02691195 0.001515338 0.00953726 0 0 0 
-0.02709075 0.0001090923 0.009241104 0 0 0 
-0.02678588 0.001831112 0.009539478 0 0 0 
-0.02734196 0.003073895 0.01130055 0 0 0 
-0.02813964 0.00276914 0.01620454 0 0 0 
-0.02802817 0.002795008 0.01692985 0 0 0 
-0.02547509 0.004849804 0.0108784 0 0 0 
-0.02618063 0.003573069 0.01026084 0 0 0 
-0.02684183 0.004091562 0.01187614 0 0 0 
-0.02555627 0.004574189 0.01064985 0 0 0 
-0.02595132 0.005231428 0.01238579 0 0 0 
-0.02499999 0.004561475 0.009941883 0 0 0 
-0.0240988 0.00545502 0.0103559 0 0 0 
-0.02445408 0.006133956 0.01226889 0 0 0 
-0.02580366 0.0060852 0.01546853 0 0 0 
-0.02782307 0.003679802 0.0148724 0 0 0 
-0.02736352 0.003997702 0.01722816 0 0 0 
-0.0261147 0.005890807 0.01477418 0 0 0 
-0.02636113 0.005333418 0.01723601 0 0 0 
-0.02446773 0.006639142 0.01460654 0 0 0 
-0.02428064 0.006589343 0.01737783 0 0 0 
-0.02830245 0.0004556239 0.01960875 0 0 0 
-0.02900586 -0.0003585085 0.01848609 0 0 0 
-0.02823178 -0.0005697049 0.02013716 0 0 0 
-0.02871465 0.001049614 0.01847679 0 0 0 
-0.02809215 0.001027416 0.01982365 0 0 0 
-0.02856074 -7.236001e-05 0.0193371 0 0 0 
-0.02788955 -9.606601e-05 0.02072227 0 0 0 
-0.02837132 0.001517992 0.01911139 0 0 0 
-0.02753695 0.00128775 0.02067453 0 0 0 
-0.02787834 0.0001736909 0.02365183 0 0 0 
-0.0283177 -0.001140784 0.02263975 0 0 0 
-0.02848363 -0.0006248807 0.02452167 0 0 0 
-0.02768912 0.000212752 0.02330946 0 0 0 
-0.02804188 0.0002082321 0.0244275 0 0 0 
-0.02764145 -0.0001140378 0.02250528 0 0 0 
-0.02799776 0.0002602264 0.02446787 0 0 0 
-0.02697835 0.001068024 0.02244682 0 0 0 
-0.02718837 0.001119138 0.02444999 0 0 0 
-0.02761814 0.002984547 0.01925751 0 0 0 
-0.02826667 0.002344169 0.01849652 0 0 0 
-0.02782255 0.002263073 0.0197125 0 0 0 
-0.02780314 0.003153102 0.01838829 0 0 0 
-0.02732519 0.003075258 0.01972516 0 0 0 
-0.02770122 0.003140584 0.01880614 0 0 0 
-0.02716631 0.002725837 0.02052605 0 0 0 
-0.02697818 0.004035458 0.018542 0 0 0 
-0.02663421 0.003739415 0.0203876 0 0 0 
-0.02642333 0.002662969 0.02219119 0 0 0 
-0.02694554 0.002175889 0.02152701 0 0 0 
-0.02741417 0.0008968643 0.02437412 0 0 0 
-0.02671868 0.003120907 0.02133566 0 0 0 
-0.02658555 0.002482423 0.02206489 0 0 0 
-0.02634384 0.002037751 0.02452688 0 0 0 
-0.02629625 0.003404607 0.0217018 0 0 0 
-0.02554163 0.003337995 0.02407645 0 0 0 
-0.02743652 0.001231141 0.02094237 0 0 0 
-0.02807837 0.0003153073 0.02003928 0 0 0 
-0.02753701 0.0005108775 0.02121337 0 0 0 
-0.0275371 0.002363962 0.02007671 0 0 0 
-0.02714254 0.001706308 0.02134507 0 0 0 
-0.02634398 0.001898414 0.02340842 0 0 0 
-0.02711232 0.0007816901 0.02265269 0 0 0 
-0.02686695 0.001399737 0.02419269 0 0 0 
-0.02645776 0.001826221 0.02285712 0 0 0 
-0.0263241 0.002024193 0.02429599 0 0 0 
-0.02603908 0.002563176 0.02298481 0 0 0 
-0.02567077 0.002975154 0.02460006 0 0 0 
-0.02545796 0.004868436 0.02018964 0 0 0 
-0.02670257 0.004076314 0.01917008 0 0 0 
-0.02617206 0.003877135 0.02114637 0 0 0 
-0.02590764 0.004998103 0.01891094 0 0 0 
-0.02552902 0.004584556 0.02068784 0 0 0 
-0.02523234 0.004597714 0.02128858 0 0 0 
-0.02457571 0.006051685 0.01895848 0 0 0 
-0.0248371 0.00529401 0.02081425 0 0 0 
-0.0251627 0.004088115 0.02352528 0 0 0 
-0.02581233 0.003123607 0.02271926 0 0 0 
-0.0256508 0.003020393 0.02449844 0 0 0 
-0.02514786 0.004223445 0.02247056 0 0 0 
-0.02499044 0.004120512 0.02434526 0 0 0 
-0.02525667 0.003974468 0.02277867 0 0 0 
-0.02484197 0.003943319 0.02506006 0 0 0 
-0.02450763 0.005149665 0.0228624 0 0 0 
-0.02409877 0.005012507 0.02477125 0 0 0 
-0.024806 -0.007781 0.008903 0 0 0 
-0.01375835 -0.009843471 0.01158374 0 0 0 
-0.0129906 -0.009121644 0.0178086 0 0 0 
-0.01675607 -0.01002004 0.02078602 0 0 0 
-0.02044852 -0.00685534 0.02783201 0 0 0 
-0.02040162 -0.002561515 0.02823306 0 0 0 
-0.01375172 -0.007644715 0.02079439 0 0 0 
-0.01357 -0.008047562 0.02003175 0 0 0 
-0.0137694 -0.007635485 0.02086867 0 0 0 
-0.01295287 -0.005550698 0.02126611 0 0 0 
-0.01366208 -0.006251689 0.02388314 0 0 0 
-0.0152488 -0.008824801 0.02233802 0 0 0 
-0.01476711 -0.008352615 0.02485656 0 0 0 
-0.01383117 -0.007237189 0.02249798 0 0 0 
-0.01402788 -0.007060863 0.02469719 0 0 0 
-0.0132957 -0.005526987 0.02300463 0 0 0 
-0.01352987 -0.005626259 0.02437191 0 0 0 
-0.01260404 -0.004292267 0.02151915 0 0 0 
-0.01280417 -0.00444888 0.02177158 0 0 0 
-0.01300212 -0.003349403 0.02356238 0 0 0 
-0.0130238 -0.00380287 0.02304877 0 0 0 
-0.01308045 -0.003875298 0.0242806 0 0 0 
-0.01282347 -0.002837685 0.02334696 0 0 0 
-0.0127215 -0.002416586 0.02431361 0 0 0 
-0.02214615 0.007019124 0.01122939 0 0 0 
-0.02297695 0.006436973 0.01071752 0 0 0 
-0.0224298 0.007083596 0.01177303 0 0 0 
-0.02097351 0.007984213 0.01528626 0 0 0 
-0.01738337 0.008215796 0.01312717 0 0 0 
-0.01497887 0.007204171 0.01655025 0 0 0 
-0.01421691 0.007117854 0.0157054 0 0 0 
-0.0143616 0.006891343 0.01704198 0 0 0 
-0.0201075 0.0009355302 0.02800259 0 0 0 
-0.02147882 0.007404795 0.02015268 0 0 0 
-0.0222468 0.007103065 0.02071354 0 0 0 
-0.02311538 0.006295577 0.02370639 0 0 0 
-0.02287957 0.006627873 0.02292003 0 0 0 
-0.02348657 0.00576832 0.02454145 0 0 0 
-0.01716305 0.00541375 0.02584065 0 0 0 
-0.01150834 0.001124565 0.02074911 0 0 0 
-0.01229393 -0.0009594735 0.02387513 0 0 0 
-0.0124133 -0.001275021 0.02436142 0 0 0 
-0.01416707 0.005865772 0.02014043 0 0 0 
-0.01630982 0.006728455 0.02169797 0 0 0 
-0.01326981 0.004779771 0.0210141 0 0 0 
-0.0141981 0.006146234 0.01943867 0 0 0 
-0.01399148 0.00556817 0.02085355 0 0 0 
-0.01557873 0.005384648 0.02375472 0 0 0 
-0.01653496 0.004882508 0.02573578 0 0 0 
-0.015984 0.005794 0.022999 0 0 0 
-0.01658647 0.005297442 0.02524476 0 0 0 
-0.01461563 0.005226539 0.0231405 0 0 0 
-0.01546465 0.005053679 0.02512929 0 0 0 
-0.0149853 0.005414912 0.02286025 0 0 0 
-0.01523616 0.005205073 0.02456506 0 0 0 
-0.02748423 -0.005311471 0.02622768 0 0 0 
-0.0281185 -0.005875038 0.02538621 0 0 0 
-0.02752744 -0.005568333 0.02609403 0 0 0 
-0.0284127 -0.004666601 0.0256474 0 0 0 
-0.02789053 -0.004473684 0.02620273 0 0 0 
-0.02708159 -0.0063751 0.02609188 0 0 0 
-0.02646986 -0.005989632 0.02660104 0 0 0 
-0.02733723 -0.004978077 0.02644471 0 0 0 
-0.02663504 -0.004673086 0.02685543 0 0 0 
-0.02642772 -0.004797034 0.02691966 0 0 0 
-0.02785591 -0.002712154 0.02644962 0 0 0 
-0.02859656 -0.003336058 0.02581325 0 0 0 
-0.02802693 -0.003190818 0.02634779 0 0 0 
-0.0285626 -0.001993385 0.02583566 0 0 0 
-0.0280818 -0.002117913 0.02628372 0 0 0 
-0.02743797 -0.003446424 0.02665322 0 0 0 
-0.02675948 -0.003352394 0.02698796 0 0 0 
-0.02742258 -0.001842302 0.02662165 0 0 0 
-0.02671362 -0.001931751 0.02698159 0 0 0 
-0.02672083 -0.002744239 0.02700789 0 0 0 
-0.02434085 -0.005757491 0.0274804 0 0 0 
-0.02549313 -0.006645937 0.02684122 0 0 0 
-0.02488564 -0.006219442 0.02718721 0 0 0 
-0.02558539 -0.005126652 0.02718358 0 0 0 
-0.02500624 -0.004816382 0.02743683 0 0 0 
-0.0235453 -0.006810097 0.02742215 0 0 0 
-0.02316234 -0.006336823 0.02764302 0 0 0 
-0.02362598 -0.005168125 0.02776938 0 0 0 
-0.02322226 -0.004905724 0.0278812 0 0 0 
-0.02356544 -0.00522015 0.02777565 0 0 0 
-0.024423 -0.0057986 0.02744514 0 0 0 
-0.02449386 -0.004631404 0.02762107 0 0 0 
-0.02293424 -0.005994671 0.02777109 0 0 0 
-0.0228738 -0.004716805 0.02796714 0 0 0 
-0.02441573 -0.002638457 0.02777206 0 0 0 
-0.02564747 -0.003429005 0.02738621 0 0 0 
-0.02507737 -0.003370496 0.02756444 0 0 0 
-0.02562601 -0.001809364 0.02737886 0 0 0 
-0.02506576 -0.001906992 0.02756756 0 0 0 
-0.02361683 -0.003474166 0.02792981 0 0 0 
-0.02326109 -0.003399802 0.02800111 0 0 0 
-0.02360342 -0.001750424 0.02792044 0 0 0 
-0.02324727 -0.001884409 0.02799628 0 0 0 
-0.02365081 -0.002706007 0.02794655 0 0 0 
-0.02456098 -0.003246634 0.02771888 0 0 0 
-0.02469549 -0.001994987 0.02768097 0 0 0 
-0.0230168 -0.003330577 0.02803497 0 0 0 
-0.02295517 -0.001937507 0.02804533 0 0 0 
-0.027381 -0.0001661052 0.0262151 0 0 0 
-0.02826726 -0.0008294423 0.02572043 0 0 0 
-0.02781291 -0.001019372 0.02626022 0 0 0 
-0.02778773 7.458427e-05 0.02553079 0 0 0 
-0.02741216 -8.684536e-05 0.02614038 0 0 0 
-0.02727905 -0.0003278246 0.02636087 0 0 0 
-0.02659356 -0.0006456486 0.02685114 0 0 0 
-0.02680599 0.0009276037 0.02603251 0 0 0 
-0.02623255 0.0006204763 0.02669004 0 0 0 
-0.02630172 -0.0004839993 0.02695225 0 0 0 
-0.026185 0.002042 0.02591 0 0 0 
-0.02708595 0.001026705 0.02543189 0 0 0 
-0.02623609 0.002054728 0.02580099 0 0 0 
-0.0259415 0.001749684 0.0264004 0 0 0 
-0.02567422 0.00288265 0.02561638 0 0 0 
-0.02567537 0.001623263 0.02662473 0 0 0 
-0.02433926 0.0004789514 0.02746671 0 0 0 
-0.02559461 -0.0001521824 0.02716655 0 0 0 
-0.02501719 -0.0004672816 0.02741293 0 0 0 
-0.02548382 0.001368613 0.02681452 0 0 0 
-0.02490587 0.000954806 0.02717145 0 0 0 
-0.02365128 -0.0001343101 0.02774873 0 0 0 
-0.02321869 -0.0003634319 0.0278715 0 0 0 
-0.02366679 0.001473964 0.02746988 0 0 0 
-0.02315928 0.001138997 0.02768306 0 0 0 
-0.02349724 -4.749862e-05 0.0277764 0 0 0 
-0.02456766 -0.0006782964 0.02758148 0 0 0 
-0.02434022 0.0006340303 0.02743376 0 0 0 
-0.02287529 -0.000547936 0.0279536 0 0 0 
-0.02286097 0.0009466741 0.02777305 0 0 0 
-0.02399535 0.003327592 0.02681871 0 0 0 
-0.02524585 0.002727182 0.02631971 0 0 0 
-0.02463135 0.002290222 0.02688514 0 0 0 
-0.02466274 0.003746783 0.0259268 0 0 0 
-0.02408151 0.003463544 0.02670445 0 0 0 
-0.02366375 0.002994989 0.02711421 0 0 0 
-0.0229959 0.002654449 0.02748716 0 0 0 
-0.02359205 0.004505029 0.0266136 0 0 0 
-0.02265236 0.00440179 0.02753777 0 0 0 
-0.02280879 0.003045901 0.02750782 0 0 0 
-0.02241832 0.002578925 0.02770476 0 0 0 
-0.0219809 0.004947973 0.02816532 0 0 0 
-0.02033819 -0.005865465 0.02806738 0 0 0 
-0.0214125 -0.006832036 0.02776525 0 0 0 
-0.02126141 -0.006400135 0.02788013 0 0 0 
-0.02145567 -0.005183649 0.02808874 0 0 0 
-0.0212896 -0.004941985 0.02812666 0 0 0 
-0.0193037 -0.006885381 0.02785992 0 0 0 
-0.01931095 -0.006425673 0.02797222 0 0 0 
-0.01928584 -0.005111526 0.0281843 0 0 0 
-0.01931284 -0.004949361 0.02819709 0 0 0 
-0.02016987 -0.005394171 0.02814994 0 0 0 
-0.0210907 -0.006037304 0.02798108 0 0 0 
-0.02112795 -0.0047808 0.02815395 0 0 0 
-0.01933891 -0.006065717 0.02805147 0 0 0 
-0.01935755 -0.004809825 0.02820824 0 0 0 
-0.02032536 -0.002624196 0.02823558 0 0 0 
-0.02149782 -0.003454542 0.02820231 0 0 0 
-0.02129919 -0.003411172 0.02821965 0 0 0 
-0.02132269 -0.001851431 0.02820848 0 0 0 
-0.02130468 -0.001866231 0.02820876 0 0 0 
-0.01928615 -0.003377628 0.02824652 0 0 0 
-0.01931095 -0.003412983 0.02824748 0 0 0 
-0.01926542 -0.001780907 0.02819531 0 0 0 
-0.01931291 -0.001870809 0.02820066 0 0 0 
-0.02025762 -0.002700366 0.02823821 0 0 0 
-0.02117008 -0.003400328 0.02822835 0 0 0 
-0.02128667 -0.001881031 0.02820904 0 0 0 
-0.01933574 -0.003448339 0.02824844 0 0 0 
-0.01936041 -0.00196071 0.02820602 0 0 0 
-0.0162264 -0.00581432 0.02777151 0 0 0 
-0.01716602 -0.006839773 0.02771638 0 0 0 
-0.01734044 -0.006408423 0.02784241 0 0 0 
-0.01712398 -0.005176702 0.02802953 0 0 0 
-0.0173409 -0.004927652 0.02808759 0 0 0 
-0.01497751 -0.006717203 0.02728686 0 0 0 
-0.01547768 -0.006367227 0.02751895 0 0 0 
-0.01498524 -0.005104908 0.02759176 0 0 0 
-0.01546531 -0.004887671 0.02774669 0 0 0 
-0.01687187 -0.005231846 0.02798526 0 0 0 
-0.01760675 -0.006060551 0.02793595 0 0 0 
-0.01755918 -0.004721424 0.02814013 0 0 0 
-0.01590026 -0.006009744 0.02766154 0 0 0 
-0.01585892 -0.004670401 0.02787047 0 0 0 
-0.01623804 -0.002640587 0.02804178 0 0 0 
-0.01719275 -0.003401445 0.02813258 0 0 0 
-0.01732657 -0.003412743 0.02814193 0 0 0 
-0.01721124 -0.001849016 0.0281313 0 0 0 
-0.01732496 -0.001867077 0.02813817 0 0 0 
-0.01485375 -0.003523976 0.02770121 0 0 0 
-0.01541836 -0.003389005 0.02787572 0 0 0 
-0.01481632 -0.001990372 0.02776757 0 0 0 
-0.01539592 -0.001835221 0.02793957 0 0 0 
-0.01666317 -0.002628996 0.02809 0 0 0 
-0.01746039 -0.003424041 0.02815129 0 0 0 
-0.01743868 -0.001885138 0.02814505 0 0 0 
-0.01574294 -0.003354401 0.02794638 0 0 0 
-0.01568067 -0.001760466 0.02798678 0 0 0 
-0.02027668 0.0005290238 0.0280533 0 0 0 
-0.02144068 -0.0001441954 0.02809066 0 0 0 
-0.02129161 -0.0003380401 0.02812182 0 0 0 
-0.02147292 0.001318033 0.027959 0 0 0 
-0.0212866 0.001207402 0.02798456 0 0 0 
-0.01920678 -0.0001332174 0.02806956 0 0 0 
-0.01932227 -0.000342784 0.02809905 0 0 0 
-0.01920137 0.00143781 0.02788094 0 0 0 
-0.01933064 0.001166429 0.02793009 0 0 0 
-0.02033502 0.0001957111 0.02808512 0 0 0 
-0.02121828 -0.000502917 0.02814314 0 0 0 
-0.02114725 0.001033295 0.02800911 0 0 0 
-0.01938552 -0.000516524 0.02811917 0 0 0 
-0.01945011 0.000975177 0.02796249 0 0 0 
-0.02014473 0.003430671 0.02798863 0 0 0 
-0.02166084 0.002888022 0.02784412 0 0 0 
-0.02126081 0.002765402 0.02792867 0 0 0 
-0.02212478 0.004019372 0.02783695 0 0 0 
-0.02128594 0.004344833 0.02823751 0 0 0 
-0.01908348 0.002876197 0.02769574 0 0 0 
-0.01943091 0.002760927 0.02777232 0 0 0 
-0.01861075 0.004335854 0.0274027 0 0 0 
-0.01950462 0.004396782 0.02795347 0 0 0 
-0.02065758 0.004418829 0.02832305 0 0 0 
-0.02107437 0.00291463 0.02795775 0 0 0 
-0.02102762 0.005035793 0.02851501 0 0 0 
-0.01989731 0.002832213 0.0278785 0 0 0 
-0.02009631 0.004934934 0.02837131 0 0 0 
-0.01641652 0.0004743257 0.02803552 0 0 0 
-0.0173256 -0.0001628501 0.02804215 0 0 0 
-0.0173151 -0.000330147 0.02805875 0 0 0 
-0.01741564 0.001457029 0.0278328 0 0 0 
-0.01727682 0.001158379 0.02789282 0 0 0 
-0.01534131 -0.0005134298 0.02802104 0 0 0 
-0.01531143 -0.0002824758 0.02805707 0 0 0 
-0.01589643 0.001066367 0.02818353 0 0 0 
-0.01539955 0.001165783 0.02846142 0 0 0 
-0.0148769 0.001613656 0.02900789 0 0 0 
-0.01736422 -0.0004853229 0.02806967 0 0 0 
-0.01706086 0.001062277 0.02792987 0 0 0 
-0.01456447 0.0007691022 0.02864227 0 0 0 
-0.01465392 0.001762744 0.029231 0 0 0 
-0.01389391 0.002334623 0.03002338 0 0 0 
-0.01635725 0.003607952 0.02741965 0 0 0 
-0.01734822 0.003305918 0.02741088 0 0 0 
-0.01723953 0.002664931 0.02765051 0 0 0 
-0.01722211 0.004508188 0.02663625 0 0 0 
-0.01734358 0.003684768 0.02720677 0 0 0 
-0.01622016 0.003762285 0.02736195 0 0 0 
-0.01562922 0.002812878 0.02856391 0 0 0 
-0.01548085 0.004687787 0.02647651 0 0 0 
-0.01511408 0.004137164 0.02820612 0 0 0 
-0.014697 0.003257 0.029598 0 0 0 
-0.01549167 0.002721569 0.02875119 0 0 0 
-0.01526334 0.003375037 0.02882363 0 0 0 
-0.01471597 0.002864355 0.02957161 0 0 0 
-0.01383194 0.003102211 0.0303491 0 0 0 
-0.01441566 0.003878627 0.02966953 0 0 0 
-0.01364326 0.004138527 0.03053604 0 0 0 
-0.013483 0.002674 0.030469 0 0 0 
-0.01300772 0.003872382 0.03112078 0 0 0 
-0.01789623 -0.01542393 0.01314093 0 0 0 
-0.01774709 -0.01506013 0.01470088 0 0 0 
-0.01476883 -0.0115081 0.01316087 0 0 0 
-0.01488572 -0.0117242 0.01357741 0 0 0 
-0.014654 -0.011766 0.015289 0 0 0 
-0.01480313 -0.01192089 0.01481198 0 0 0 
-0.01487499 -0.01178362 0.01582401 0 0 0 
-0.008917691 -0.01121618 0.009038645 0 0 0 
-0.01498762 -0.01109522 0.01741267 0 0 0 
-0.01621965 -0.01055817 0.02390759 0 0 0 
-0.0138905 -0.01049053 0.01261679 0 0 0 
-0.01317186 -0.01079501 0.009534837 0 0 0 
-0.01446292 -0.01128978 0.01324653 0 0 0 
-0.01323512 -0.01026887 0.01026065 0 0 0 
-0.01384931 -0.01063218 0.01301895 0 0 0 
-0.01116664 -0.01096913 0.009455401 0 0 0 
-0.01348315 -0.01051793 0.01369058 0 0 0 
-0.01132089 -0.01032789 0.01016814 0 0 0 
-0.01275583 -0.00966715 0.01337784 0 0 0 
-0.01363635 -0.01075843 0.0154009 0 0 0 
-0.01431863 -0.01155291 0.01479236 0 0 0 
-0.014561 -0.011419 0.016154 0 0 0 
-0.01360454 -0.01088031 0.01472207 0 0 0 
-0.01387282 -0.01056198 0.01647472 0 0 0 
-0.01345834 -0.01072901 0.01465878 0 0 0 
-0.01280057 -0.009951697 0.01466679 0 0 0 
-0.01280456 -0.009607945 0.01627189 0 0 0 
-0.0122715 -0.00905785 0.01199018 0 0 0 
-0.01327965 -0.009823554 0.01100763 0 0 0 
-0.01314814 -0.009772905 0.01273654 0 0 0 
-0.01284228 -0.009451158 0.01154076 0 0 0 
-0.01250651 -0.009095552 0.01256357 0 0 0 
-0.01131747 -0.009667228 0.01095074 0 0 0 
-0.01200461 -0.008843374 0.01304737 0 0 0 
-0.01116802 -0.008918505 0.01171797 0 0 0 
-0.01125294 -0.00813844 0.01285457 0 0 0 
-0.01213643 -0.00899696 0.01575376 0 0 0 
-0.01284881 -0.009982352 0.01482856 0 0 0 
-0.01314978 -0.009782155 0.01676065 0 0 0 
-0.01207229 -0.009009783 0.01493356 0 0 0 
-0.01238936 -0.008865135 0.01713414 0 0 0 
-0.01205082 -0.009030389 0.01466138 0 0 0 
-0.01216176 -0.008872695 0.01649483 0 0 0 
-0.01142154 -0.007992569 0.01477192 0 0 0 
-0.01155615 -0.007921701 0.01664066 0 0 0 
-0.008388127 -0.01001486 0.01048932 0 0 0 
-0.009447573 -0.01095824 0.009420778 0 0 0 
-0.009372008 -0.01030126 0.01018936 0 0 0 
-0.009205966 -0.009350063 0.01133651 0 0 0 
-0.007729135 -0.01052907 0.009584507 0 0 0 
-0.00751047 -0.01009146 0.01024374 0 0 0 
-0.007488853 -0.009279738 0.01138968 0 0 0 
-0.008172536 -0.008374454 0.0125589 0 0 0 
-0.008332401 -0.008912829 0.0119319 0 0 0 
-0.009336576 -0.009667353 0.01094567 0 0 0 
-0.009222414 -0.008720675 0.01204768 0 0 0 
-0.009451979 -0.008981196 0.01172383 0 0 0 
-0.009317037 -0.007980512 0.01274703 0 0 0 
-0.007333542 -0.009606929 0.0108943 0 0 0 
-0.007398066 -0.008700762 0.01213253 0 0 0 
-0.007071306 -0.009003694 0.0116015 0 0 0 
-0.007342373 -0.008131004 0.01288829 0 0 0 
-0.007720022 -0.00712053 0.0139509 0 0 0 
-0.008910839 -0.007922739 0.01287776 0 0 0 
-0.01165956 -0.008266288 0.01621937 0 0 0 
-0.009118923 -0.007059705 0.01356693 0 0 0 
-0.01107526 -0.007161485 0.01633141 0 0 0 
-0.007200796 -0.007800544 0.01331125 0 0 0 
-0.007231781 -0.007270193 0.01390954 0 0 0 
-0.007307657 -0.006490919 0.01452548 0 0 0 
-0.01413585 -0.00988871 0.01834933 0 0 0 
-0.01472686 -0.01078677 0.01761479 0 0 0 
-0.01421297 -0.0101331 0.01804592 0 0 0 
-0.01468073 -0.009598287 0.01943397 0 0 0 
-0.01307537 -0.009292083 0.01765927 0 0 0 
-0.01584728 -0.01009934 0.02393902 0 0 0 
-0.015902 -0.009907 0.02298 0 0 0 
-0.015692 -0.009939707 0.02458585 0 0 0 
-0.01299274 -0.008216265 0.01909933 0 0 0 
-0.01360271 -0.009306595 0.01844497 0 0 0 
-0.01412092 -0.008748595 0.01987897 0 0 0 
-0.01297153 -0.008369578 0.01887738 0 0 0 
-0.01361378 -0.007817827 0.02036062 0 0 0 
-0.01250667 -0.008518551 0.01798883 0 0 0 
-0.0130461 -0.008142577 0.01925095 0 0 0 
-0.01201693 -0.007640349 0.01823195 0 0 0 
-0.01265656 -0.007220314 0.01959232 0 0 0 
-0.01403402 -0.007745909 0.02344365 0 0 0 
-0.01454049 -0.008289707 0.02284571 0 0 0 
-0.01465417 -0.008398728 0.02413467 0 0 0 
-0.01404164 -0.00763351 0.02261661 0 0 0 
-0.014117 -0.007667 0.024161 0 0 0 
-0.01352259 -0.006853556 0.02198677 0 0 0 
-0.01390304 -0.007252007 0.02392063 0 0 0 
-0.01240194 -0.008551495 0.01773054 0 0 0 
-0.0116261 -0.007176644 0.0179833 0 0 0 
-0.01140691 -0.007043744 0.01766135 0 0 0 
-0.01375439 -0.007048816 0.02330395 0 0 0 
-0.003880012 -0.01120477 0.008927027 0 0 0 
0.0005025778 -0.01180087 0.01003163 0 0 0 
-0.0007382046 -0.01177767 0.009542576 0 0 0 
0.001189751 -0.01215004 0.009666516 0 0 0 
0.0008951505 -0.01047045 0.01210708 0 0 0 
-0.004104801 -0.009982674 0.01047827 0 0 0 
-0.005009074 -0.0107045 0.009380998 0 0 0 
-0.005165538 -0.01012702 0.01007929 0 0 0 
-0.00496281 -0.009199489 0.01132046 0 0 0 
-0.002937321 -0.01094106 0.009482122 0 0 0 
-0.003207136 -0.01029267 0.01022672 0 0 0 
-0.003135509 -0.009413695 0.01133932 0 0 0 
-0.005018489 -0.008321241 0.01245994 0 0 0 
-0.004343139 -0.008832715 0.01186327 0 0 0 
-0.005324567 -0.009514046 0.01082271 0 0 0 
-0.005362197 -0.008584375 0.01212715 0 0 0 
-0.005425324 -0.008967854 0.01153151 0 0 0 
-0.005340943 -0.008049645 0.0128225 0 0 0 
-0.003357521 -0.009704439 0.01097479 0 0 0 
-0.003280125 -0.008754332 0.01202116 0 0 0 
-0.003416735 -0.008980696 0.01177237 0 0 0 
-0.003333605 -0.00797427 0.0127361 0 0 0 
-0.005044101 -0.007124048 0.01355815 0 0 0 
-0.0056928 -0.00783326 0.01313607 0 0 0 
-0.005649038 -0.007179119 0.01370835 0 0 0 
-0.005994 -0.006455 0.014363 0 0 0 
-0.002676794 -0.008010919 0.012895 0 0 0 
-0.003019555 -0.00723809 0.01331008 0 0 0 
-5.020801e-05 -0.01091736 0.011096 0 0 0 
-0.0008680282 -0.01144312 0.01000571 0 0 0 
-0.0004953641 -0.01070158 0.01114727 0 0 0 
-0.001150216 -0.01081416 0.01058937 0 0 0 
-0.000667718 -0.01001639 0.01184185 0 0 0 
0.0008078162 -0.0117118 0.01029578 0 0 0 
0.001037376 -0.01090852 0.01158287 0 0 0 
0.0006186332 -0.01123443 0.0109517 0 0 0 
0.0008568303 -0.01037648 0.01221165 0 0 0 
0.0007832166 -0.009562519 0.01313901 0 0 0 
-0.0003054067 -0.009324238 0.01282337 0 0 0 
0.001275048 -0.009720379 0.01319348 0 0 0 
-0.0007159099 -0.009460559 0.01244246 0 0 0 
-0.0016003 -0.009936447 0.01118446 0 0 0 
-0.001093994 -0.009197691 0.01248061 0 0 0 
-0.00197925 -0.009218973 0.01173526 0 0 0 
-0.001488419 -0.008291615 0.01312532 0 0 0 
0.000257193 -0.01060299 0.01166363 0 0 0 
0.0006000132 -0.009696762 0.01291986 0 0 0 
-0.0003057286 -0.009714545 0.01242151 0 0 0 
0.0002900854 -0.008674072 0.01365343 0 0 0 
0.0002165391 -0.007919512 0.01410814 0 0 0 
-0.000664639 -0.008525631 0.01331833 0 0 0 
-0.0009780409 -0.007517445 0.01386187 0 0 0 
-0.0004706774 -0.006993979 0.01432069 0 0 0 
0.0009875274 -0.008894228 0.01376162 0 0 0 
0.001698279 -0.008179843 0.01451793 0 0 0 
0.0007809936 -0.007822043 0.01436275 0 0 0 
0.001346802 -0.00717452 0.01493531 0 0 0 
-0.005717789 -0.005915355 0.01461621 0 0 0 
0.001755468 -0.006703476 0.01536438 0 0 0 
-0.01541282 -0.009347076 0.02594906 0 0 0 
-0.01539422 -0.009416894 0.02571797 0 0 0 
-0.015317 -0.008581 0.026746 0 0 0 
-0.014447 -0.007585 0.026547 0 0 0 
-0.01492941 -0.008603258 0.02609789 0 0 0 
-0.01501385 -0.008308228 0.02666799 0 0 0 
-0.014318 -0.007527 0.026219 0 0 0 
-0.01460386 -0.007311964 0.02691133 0 0 0 
-0.013913 -0.006772 0.026087 0 0 0 
-0.01475574 -0.00739055 0.02699823 0 0 0 
-0.01389122 -0.006675225 0.02618513 0 0 0 
-0.01090958 -0.007531958 0.0131743 0 0 0 
-0.01242727 -0.009118705 0.01195745 0 0 0 
-0.01124251 -0.007724052 0.01345013 0 0 0 
-0.01080349 -0.008208021 0.01240443 0 0 0 
-0.010822 -0.00733 0.013356 0 0 0 
-0.01025381 -0.006458247 0.01411764 0 0 0 
-0.01069045 -0.006497557 0.01595628 0 0 0 
-0.01128893 -0.00773692 0.01455329 0 0 0 
-0.01151586 -0.007470039 0.01737024 0 0 0 
-0.01055615 -0.006422702 0.01507246 0 0 0 
-0.01100877 -0.005899701 0.01786206 0 0 0 
-0.01074112 -0.006794334 0.0147284 0 0 0 
-0.01093675 -0.006672367 0.01678223 0 0 0 
-0.01015178 -0.005749104 0.01511682 0 0 0 
-0.01043615 -0.005303937 0.01693165 0 0 0 
-0.01002252 -0.005893043 0.01458733 0 0 0 
-0.009786242 -0.003925315 0.01636712 0 0 0 
-0.009659939 -0.004120177 0.0158574 0 0 0 
-0.009952513 -0.003949905 0.01708155 0 0 0 
-0.00944404 -0.003488976 0.01613893 0 0 0 
-0.009813595 -0.002037324 0.01760631 0 0 0 
-0.008741805 -0.007164379 0.01356362 0 0 0 
-0.009664914 -0.008071893 0.01259539 0 0 0 
-0.009444471 -0.007071528 0.01350056 0 0 0 
-0.009369327 -0.00602969 0.0143267 0 0 0 
-0.007055391 -0.008585947 0.0121952 0 0 0 
-0.007476562 -0.00743694 0.01369517 0 0 0 
-0.007783483 -0.005988219 0.01474287 0 0 0 
-0.008192465 -0.005311582 0.01500598 0 0 0 
-0.009260626 -0.00615154 0.01425236 0 0 0 
-0.0105679 -0.005989081 0.01641768 0 0 0 
-0.009284622 -0.005099335 0.01497274 0 0 0 
-0.01011457 -0.004695684 0.01649208 0 0 0 
-0.007327521 -0.006399076 0.01457986 0 0 0 
-0.007267277 -0.005608197 0.01502719 0 0 0 
-0.007392638 -0.005191737 0.01523437 0 0 0 
-0.007281072 -0.004476587 0.01558431 0 0 0 
-0.008721267 -0.004576541 0.01533284 0 0 0 
-0.009201839 -0.004839128 0.01512726 0 0 0 
-0.007849192 -0.004756458 0.01538565 0 0 0 
-0.008326185 -0.002807961 0.01621667 0 0 0 
-0.009215365 -0.003941138 0.0156605 0 0 0 
-0.009543275 -0.003322422 0.01659352 0 0 0 
-0.008813039 -0.002568357 0.01637747 0 0 0 
-0.009236026 -0.001914602 0.01685436 0 0 0 
-0.007354571 -0.003842371 0.01584483 0 0 0 
-0.007340045 -0.003205323 0.01608013 0 0 0 
-0.007314837 -0.002268336 0.01633489 0 0 0 
-0.007347276 -0.001806565 0.01645263 0 0 0 
-0.01212723 -0.005809067 0.01975232 0 0 0 
-0.01236077 -0.007072928 0.01929346 0 0 0 
-0.01308518 -0.006595036 0.02068625 0 0 0 
-0.01193661 -0.005462659 0.01967235 0 0 0 
-0.01267726 -0.005213937 0.02091154 0 0 0 
-0.01155811 -0.006406057 0.01850869 0 0 0 
-0.0123058 -0.00611522 0.01982883 0 0 0 
-0.01113768 -0.005017175 0.01875199 0 0 0 
-0.01199183 -0.004720211 0.02009481 0 0 0 
-0.01333623 -0.005482226 0.02322046 0 0 0 
-0.01345648 -0.006449685 0.02247629 0 0 0 
-0.013769 -0.006401873 0.02439221 0 0 0 
-0.01310379 -0.004992598 0.02254228 0 0 0 
-0.01331241 -0.004961101 0.02444267 0 0 0 
-0.01324726 -0.006036797 0.02218864 0 0 0 
-0.01353298 -0.005670466 0.02458976 0 0 0 
-0.01294281 -0.004567768 0.0221303 0 0 0 
-0.01319946 -0.004522148 0.02457378 0 0 0 
-0.01145812 -0.002877407 0.02014381 0 0 0 
-0.01157194 -0.00393347 0.01986182 0 0 0 
-0.01218772 -0.003813179 0.02110538 0 0 0 
-0.01116439 -0.002183033 0.0198825 0 0 0 
-0.01177928 -0.002190262 0.02117425 0 0 0 
-0.01084645 -0.003514319 0.01894553 0 0 0 
-0.01170919 -0.003319064 0.0203896 0 0 0 
-0.01064851 -0.001920882 0.01900884 0 0 0 
-0.0114306 -0.001843708 0.02052596 0 0 0 
-0.01270583 -0.002537604 0.02333329 0 0 0 
-0.01286058 -0.003579916 0.0226778 0 0 0 
-0.01297112 -0.003500913 0.02440075 0 0 0 
-0.01241523 -0.002156224 0.02289406 0 0 0 
-0.01263698 -0.002041545 0.02441236 0 0 0 
-0.01234023 -0.003043698 0.02204685 0 0 0 
-0.01283835 -0.00303913 0.02458046 0 0 0 
-0.01205405 -0.00170818 0.02225615 0 0 0 
-0.01248088 -0.001492647 0.02447217 0 0 0 
-0.01075853 -0.004882353 0.01819301 0 0 0 
-0.01094778 -0.005799762 0.01782716 0 0 0 
-0.01159595 -0.005677355 0.01909767 0 0 0 
-0.01050564 -0.004544129 0.01796105 0 0 0 
-0.01127397 -0.004403068 0.01923571 0 0 0 
-0.007289338 -0.003850089 0.01584287 0 0 0 
-0.0123754 -0.003931069 0.02138797 0 0 0 
-0.01034559 -0.00241906 0.0184167 0 0 0 
-0.01025981 -0.003256155 0.01808356 0 0 0 
-0.01107958 -0.003039605 0.01948261 0 0 0 
-0.0101147 -0.001790097 0.01814398 0 0 0 
-0.01099506 -0.001680075 0.01967913 0 0 0 
-0.007348493 -0.002721774 0.01621933 0 0 0 
-0.007537007 -0.001396085 0.0165611 0 0 0 
-0.01206323 -0.001842189 0.02219913 0 0 0 
-0.01201691 -0.002710019 0.02150548 0 0 0 
-0.0118093 -0.001396983 0.02169202 0 0 0 
-0.01174365 -0.0001766449 0.02488302 0 0 0 
-0.009537957 0.001473077 0.01730906 0 0 0 
-0.009937193 0.00101714 0.01776131 0 0 0 
-0.009859185 -0.0003903238 0.01784491 0 0 0 
-0.009761897 0.001818783 0.01736598 0 0 0 
-0.01006029 0.001584804 0.01773033 0 0 0 
-0.01334867 0.007329788 0.01532618 0 0 0 
-0.01104 0.004615 0.017165 0 0 0 
-0.0112482 0.004118776 0.0178886 0 0 0 
-0.01303095 0.006645888 0.01623494 0 0 0 
-0.01234002 0.005775353 0.01718684 0 0 0 
-0.01021757 0.003727064 0.01709884 0 0 0 
-0.01047179 0.003226159 0.01754379 0 0 0 
-0.0107213 0.005029477 0.01682856 0 0 0 
-0.01102194 0.004611253 0.01715535 0 0 0 
-0.007403286 0.0002089828 0.01675884 0 0 0 
-0.008114775 0.0004012049 0.01690234 0 0 0 
-0.008693641 -0.0006868935 0.0169419 0 0 0 
-0.009084032 -0.0003977837 0.01717375 0 0 0 
-0.0089 0.001584 0.017057 0 0 0 
-0.009180018 0.001312447 0.01717799 0 0 0 
-0.007009822 -0.0005310681 0.01662209 0 0 0 
-0.007335168 -0.0003197083 0.01670319 0 0 0 
-0.006924806 0.001260305 0.01668927 0 0 0 
-0.007322909 0.001226713 0.01677137 0 0 0 
-0.007171191 0.004536023 0.01635955 0 0 0 
-0.008193059 0.003707336 0.01670852 0 0 0 
-0.008948819 0.003070364 0.01691524 0 0 0 
-0.009248304 0.002827634 0.01702135 0 0 0 
-0.009063001 0.004758834 0.01660512 0 0 0 
-0.009324774 0.004331504 0.01674504 0 0 0 
-0.006963379 0.002891442 0.01655643 0 0 0 
-0.007346803 0.002768639 0.01664555 0 0 0 
-0.006927682 0.004649857 0.01627111 0 0 0 
-0.007388155 0.004278557 0.01647009 0 0 0 
-0.01121412 0.0006297689 0.01994365 0 0 0 
-0.0109795 -0.0002754175 0.01957026 0 0 0 
-0.01146313 -0.0003925934 0.02109653 0 0 0 
-0.01120754 0.001629789 0.01948113 0 0 0 
-0.01159575 0.001570652 0.02086855 0 0 0 
-0.01067254 -0.000267849 0.01899757 0 0 0 
-0.01130995 -0.0003180733 0.02057543 0 0 0 
-0.01086181 0.001321084 0.01891969 0 0 0 
-0.01146796 0.001207825 0.02053493 0 0 0 
-0.01182191 0.0002876943 0.02344904 0 0 0 
-0.01199455 -0.0006445788 0.02286511 0 0 0 
-0.01222926 -0.000831475 0.02429832 0 0 0 
-0.01174074 0.001301943 0.02240586 0 0 0 
-0.01173315 0.000329849 0.02391358 0 0 0 
-0.01181186 -0.0002506505 0.02240423 0 0 0 
-0.01173863 -4.955355e-05 0.02456044 0 0 0 
-0.01172594 0.001210975 0.02253976 0 0 0 
-0.01106163 0.0009823338 0.02427554 0 0 0 
-0.01192153 0.003745603 0.01975537 0 0 0 
-0.0116294 0.003472696 0.01930047 0 0 0 
-0.0120512 0.003238348 0.02081032 0 0 0 
-0.01245028 0.005038534 0.01909348 0 0 0 
-0.01303013 0.004637226 0.02071574 0 0 0 
-0.01113879 0.002841731 0.01873555 0 0 0 
-0.01173876 0.002655646 0.02046665 0 0 0 
-0.01158819 0.004184037 0.01851216 0 0 0 
-0.01214441 0.003812165 0.02020664 0 0 0 
-0.01202432 0.003908772 0.02308122 0 0 0 
-0.01208593 0.003239503 0.0222026 0 0 0 
-0.01238073 0.004383318 0.02329903 0 0 0 
-0.01311863 0.004617841 0.02248104 0 0 0 
-0.0133454 0.005049792 0.0241666 0 0 0 
-0.01171419 0.002715619 0.02270932 0 0 0 
-0.01077407 0.002530658 0.02361154 0 0 0 
-0.01173036 0.00390331 0.02326073 0 0 0 
-0.01122521 0.004691323 0.0238597 0 0 0 
-0.01017779 0.0001746918 0.01822507 0 0 0 
-0.01007174 -0.0003387642 0.01813325 0 0 0 
-0.01113928 -0.0003699831 0.02002019 0 0 0 
-0.01013818 0.001027124 0.01800027 0 0 0 
-0.01126949 0.0009208634 0.01997403 0 0 0 
-0.007679215 -0.0001042489 0.01678704 0 0 0 
-0.007651383 0.001228617 0.01682979 0 0 0 
-0.009841899 0.001892645 0.02483097 0 0 0 
-0.01170805 -4.970399e-05 0.02203839 0 0 0 
-0.01056196 0.001043223 0.0250446 0 0 0 
-0.01077616 0.001804697 0.02392355 0 0 0 
-0.009895351 0.001794383 0.0248819 0 0 0 
-0.008643759 0.002562313 0.02550106 0 0 0 
-0.008813385 0.003178249 0.01687684 0 0 0 
-0.01034979 0.002408659 0.01779349 0 0 0 
-0.01151679 0.002370252 0.01995116 0 0 0 
-0.009661288 0.003888672 0.01690406 0 0 0 
-0.011739 0.003364325 0.01971621 0 0 0 
-0.007694001 0.002581021 0.01673326 0 0 0 
-0.007695235 0.004018322 0.01658589 0 0 0 
-0.009068938 0.003608504 0.0246087 0 0 0 
-0.01031553 0.002931518 0.02383991 0 0 0 
-0.009423996 0.002821558 0.024563 0 0 0 
-0.01011321 0.004054741 0.02400414 0 0 0 
-0.009340723 0.004318713 0.02445931 0 0 0 
-0.008967092 0.003397233 0.02470465 0 0 0 
-0.008085501 0.003291942 0.02541364 0 0 0 
-0.008610042 0.00431997 0.0248565 0 0 0 
-0.007816326 0.004411667 0.02529435 0 0 0 
-0.004038775 -0.006739184 0.0135486 0 0 0 
-0.005234641 -0.008472028 0.01227922 0 0 0 
-0.005077062 -0.007081318 0.01360103 0 0 0 
-0.004740151 -0.005816664 0.01430373 0 0 0 
-0.003585326 -0.008058172 0.01262682 0 0 0 
-0.003375627 -0.006825383 0.01348002 0 0 0 
-0.003368808 -0.006333693 0.01371135 0 0 0 
-0.00329601 -0.005483934 0.01411412 0 0 0 
-0.00475111 -0.0051739 0.0146792 0 0 0 
-0.005500027 -0.006227191 0.01434739 0 0 0 
-0.005777785 -0.005504371 0.01486142 0 0 0 
-0.00528261 -0.005046159 0.01494232 0 0 0 
-0.005703143 -0.004369969 0.01538708 0 0 0 
-0.003422496 -0.006025073 0.01388515 0 0 0 
-0.004145516 -0.005239222 0.01441076 0 0 0 
-0.00336246 -0.004788636 0.01444185 0 0 0 
-0.003898396 -0.004081907 0.01497214 0 0 0 
-0.003656944 -0.004306175 0.01477462 0 0 0 
-0.004541976 -0.004542652 0.0149331 0 0 0 
-0.004505413 -0.002278004 0.01576841 0 0 0 
-0.003163906 -0.004425848 0.01462446 0 0 0 
-0.003159357 -0.002565191 0.01543343 0 0 0 
-0.004355037 -0.002626226 0.01567676 0 0 0 
-0.005145303 -0.003723571 0.01552169 0 0 0 
-0.005554552 -0.003129271 0.01584104 0 0 0 
-0.005010071 -0.002116467 0.01595793 0 0 0 
-0.005473937 -0.001761385 0.01615163 0 0 0 
-0.00331515 -0.003558044 0.01507884 0 0 0 
-0.003713684 -0.003026307 0.01539153 0 0 0 
-0.003274602 -0.001976324 0.01555896 0 0 0 
-0.003412184 -0.00175938 0.01560262 0 0 0 
-0.001130793 -0.006774477 0.0141737 0 0 0 
-0.002127448 -0.008582372 0.01250548 0 0 0 
-0.001729177 -0.007041376 0.01383053 0 0 0 
-0.001870382 -0.005575892 0.01445802 0 0 0 
7.150054e-05 -0.007227293 0.0144139 0 0 0 
-0.0001806567 -0.005803599 0.01491592 0 0 0 
-7.408619e-05 -0.005454448 0.01511217 0 0 0 
-0.001227405 -0.006327027 0.01434502 0 0 0 
-0.0006716563 -0.005747226 0.01475219 0 0 0 
-0.001369727 -0.004983572 0.0148288 0 0 0 
-0.0007108786 -0.004378534 0.01530762 0 0 0 
0.0005853135 -0.006573068 0.01490539 0 0 0 
0.001216021 -0.005920398 0.01550374 0 0 0 
0.0003358821 -0.005268113 0.01539791 0 0 0 
0.0009724909 -0.004666559 0.01594818 0 0 0 
-0.001364842 -0.00398698 0.01521752 0 0 0 
-0.002029292 -0.004227306 0.01492554 0 0 0 
-0.001955478 -0.002585995 0.01555104 0 0 0 
-0.0004719564 -0.004539463 0.01534331 0 0 0 
-0.0004404963 -0.002699383 0.0159761 0 0 0 
-0.001516215 -0.003633671 0.0153136 0 0 0 
-0.0009793936 -0.003085657 0.01567987 0 0 0 
-0.001627261 -0.002064299 0.01575565 0 0 0 
-0.001136245 -0.00174792 0.01594435 0 0 0 
0.0001497436 -0.003739602 0.01592426 0 0 0 
0.000791463 -0.00332604 0.0162945 0 0 0 
0.000124527 -0.002079255 0.01629831 0 0 0 
0.0007006224 -0.001843275 0.01651465 0 0 0 
-0.00540922 -0.003935986 0.01550242 0 0 0 
-0.005287951 -0.001903754 0.01607785 0 0 0 
-0.005863592 -0.002765462 0.01601381 0 0 0 
-0.005843981 -0.00144601 0.01629434 0 0 0 
-0.004444441 -0.001488524 0.01588042 0 0 0 
0.001105825 -0.004501529 0.01606597 0 0 0 
0.001794109 -0.005440692 0.01600103 0 0 0 
0.001559494 -0.004241857 0.01633301 0 0 0 
0.0006297327 -0.002133233 0.01645299 0 0 0 
-0.0003961628 -0.00275933 0.01597729 0 0 0 
-0.0006395158 -0.001474185 0.01612783 0 0 0 
0.001435128 -0.003098667 0.01656336 0 0 0 
0.001151617 -0.001663745 0.0166486 0 0 0 
-0.003649718 0.0006530577 0.01569466 0 0 0 
-0.003247728 -0.0003520478 0.015694 0 0 0 
-0.003239654 0.001445742 0.01560999 0 0 0 
-0.00429059 0.0004636107 0.01588931 0 0 0 
-0.004880985 -0.000301342 0.01610842 0 0 0 
-0.005460951 -0.0002948131 0.01628319 0 0 0 
-0.004892007 0.001368064 0.01605567 0 0 0 
-0.005483521 0.001197628 0.0162806 0 0 0 
-0.003248877 -0.0003516587 0.01569413 0 0 0 
-0.00338811 -0.0003250492 0.0157094 0 0 0 
-0.003328079 0.001292417 0.01562434 0 0 0 
-0.003365908 0.001147192 0.01563603 0 0 0 
-0.003770792 0.004471716 0.01512565 0 0 0 
-0.004289705 0.003542791 0.01551695 0 0 0 
-0.004407623 0.004986297 0.01515165 0 0 0 
-0.003202538 0.003141842 0.01540892 0 0 0 
-0.003314381 0.004930166 0.01496278 0 0 0 
-0.004400393 0.003502287 0.01556969 0 0 0 
-0.004895407 0.002970703 0.01588521 0 0 0 
-0.005520051 0.002695084 0.01617409 0 0 0 
-0.004966348 0.004536098 0.01554246 0 0 0 
-0.005635 0.004164 0.015936 0 0 0 
-0.003328515 0.002882032 0.01545419 0 0 0 
-0.003538897 0.002627188 0.01551723 0 0 0 
-0.003353915 0.004424337 0.01510942 0 0 0 
-0.003342432 0.003873463 0.01527861 0 0 0 
-0.001367621 0.0007945485 0.01595119 0 0 0 
-0.002000099 -0.0003548502 0.01583895 0 0 0 
-0.001898267 0.001426779 0.01578271 0 0 0 
-0.0004855131 0.000491916 0.01621511 0 0 0 
-0.001679208 -0.0003424162 0.01592271 0 0 0 
-0.001170961 -0.0003064706 0.0160676 0 0 0 
-0.001618643 0.001317437 0.01584546 0 0 0 
-0.001151929 0.00117138 0.01597892 0 0 0 
0.0002321556 -0.0002499261 0.01644471 0 0 0 
0.0006803194 -0.0003247951 0.01655793 0 0 0 
0.0002191665 0.001355673 0.01633666 0 0 0 
0.0007002325 0.001211221 0.01647228 0 0 0 
-0.001010287 0.004368564 0.01543222 0 0 0 
-0.001887922 0.00330879 0.0155185 0 0 0 
-0.001826056 0.005126833 0.01504993 0 0 0 
0.0001926066 0.005180559 0.01542522 0 0 0 
-0.0003660537 0.003562621 0.01578993 0 0 0 
-0.001554106 0.002968362 0.01566077 0 0 0 
-0.001118022 0.002619912 0.01581725 0 0 0 
-0.001453922 0.004448864 0.01533327 0 0 0 
-0.001086448 0.004000233 0.01551316 0 0 0 
0.0003380668 0.003120934 0.01607072 0 0 0 
0.0007455933 0.002671192 0.01628575 0 0 0 
0.0004888178 0.00461847 0.01566282 0 0 0 
0.0008429126 0.004076526 0.01592411 0 0 0 
-0.005407138 0.0004064991 0.0162953 0 0 0 
-0.005871807 -0.0001496902 0.01640052 0 0 0 
-0.006008047 0.001102715 0.01645628 0 0 0 
-0.004277014 -0.0003191829 0.01590247 0 0 0 
-0.004387469 0.0011181 0.01588898 0 0 0 
-0.007279297 0.003453467 0.02609582 0 0 0 
-0.005461118 0.002882318 0.01612449 0 0 0 
-0.006000387 0.002455413 0.01636407 0 0 0 
-0.006183415 0.003806906 0.01621758 0 0 0 
-0.004256267 0.00245104 0.01572179 0 0 0 
-0.006277163 0.004521233 0.02617667 0 0 0 
-0.006764848 0.003990988 0.02608601 0 0 0 
-0.006359816 0.004688016 0.02607383 0 0 0 
-0.004900903 0.005080386 0.0269166 0 0 0 
0.0004181276 0.0002699846 0.01646854 0 0 0 
-0.0006566384 -0.0003602617 0.01620932 0 0 0 
-0.0006694748 0.001022678 0.0161231 0 0 0 
0.001168127 -0.0003967635 0.01668417 0 0 0 
0.001178297 0.001077895 0.0166005 0 0 0 
0.0005013035 0.002773247 0.01620126 0 0 0 
-0.0006548371 0.002356344 0.01598453 0 0 0 
-0.0007094347 0.003589648 0.01570744 0 0 0 
0.001187536 0.002361439 0.01646326 0 0 0 
0.001327161 0.003623191 0.01619342 0 0 0 
-0.002861 0.00564 0.027886 0 0 0 
